75.00  297.00  -352.00
-9.00  31.00  -453.00
92.00  117.00  -92.00
61.00  90.00  -435.00
-4.00  22.00  -370.00
48.00  33.00  -494.00
66.00  44.00  -472.00
12.00  -1.00  -643.00
125.00  74.00  -356.00
100.00  255.00  -270.00
124.00  176.00  -376.00
1.00  41.00  -406.00
22.00  71.00  -368.00
66.00  90.00  -424.00
127.00  29.00  -372.00
68.00  148.00  -403.00
55.00  79.00  -396.00
114.00  82.00  -292.00
-9.00  8.00  -482.00
17.00  28.00  -427.00
39.00  -90.00  -416.00
163.00  113.00  -462.00
139.00  45.00  -434.00
-4.00  42.00  -429.00
77.00  294.00  -353.00
-8.00  32.00  -449.00
93.00  121.00  -92.00
62.00  92.00  -435.00
-5.00  24.00  -363.00
46.00  34.00  -494.00
69.00  41.00  -472.00
8.00  1.00  -639.00
125.00  77.00  -353.00
98.00  260.00  -267.00
128.00  173.00  -376.00
6.00  44.00  -405.00
24.00  75.00  -365.00
68.00  92.00  -421.00
126.00  35.00  -366.00
69.00  148.00  -404.00
55.00  82.00  -392.00
115.00  81.00  -292.00
-11.00  6.00  -476.00
13.00  29.00  -426.00
44.00  -92.00  -418.00
159.00  116.00  -459.00
139.00  42.00  -432.00
-1.00  40.00  -427.00
80.00  295.00  -357.00
-9.00  33.00  -453.00
90.00  119.00  -91.00
60.00  93.00  -434.00
-4.00  24.00  -368.00
48.00  36.00  -492.00
65.00  44.00  -469.00
10.00  3.00  -640.00
126.00  74.00  -357.00
99.00  255.00  -270.00
125.00  175.00  -378.00
2.00  46.00  -404.00
22.00  74.00  -365.00
66.00  91.00  -420.00
126.00  33.00  -371.00
69.00  145.00  -402.00
55.00  83.00  -392.00
116.00  81.00  -290.00
-9.00  9.00  -478.00
15.00  31.00  -427.00
41.00  -92.00  -417.00
161.00  114.00  -460.00
137.00  43.00  -433.00
-2.00  43.00  -428.00
77.00  293.00  -355.00
-9.00  33.00  -453.00
90.00  119.00  -91.00
63.00  93.00  -435.00
-5.00  28.00  -370.00
48.00  36.00  -492.00
70.00  44.00  -469.00
10.00  3.00  -640.00
126.00  74.00  -357.00
101.00  258.00  -270.00
125.00  175.00  -378.00
2.00  46.00  -404.00
22.00  74.00  -365.00
70.00  90.00  -422.00
126.00  33.00  -371.00
69.00  145.00  -402.00
55.00  83.00  -392.00
116.00  81.00  -289.00
-14.00  8.00  -477.00
16.00  29.00  -427.00
41.00  -92.00  -417.00
161.00  114.00  -460.00
137.00  43.00  -433.00
-5.00  45.00  -428.00
77.00  293.00  -355.00
-7.00  31.00  -452.00
91.00  121.00  -91.00
63.00  93.00  -435.00
-5.00  28.00  -370.00
49.00  34.00  -493.00
70.00  44.00  -469.00
10.00  0.00  -642.00
125.00  75.00  -355.00
101.00  258.00  -270.00
127.00  176.00  -377.00
4.00  47.00  -403.00
22.00  73.00  -366.00
70.00  90.00  -422.00
128.00  33.00  -367.00
67.00  149.00  -403.00
54.00  81.00  -394.00
116.00  81.00  -289.00
-14.00  8.00  -477.00
16.00  29.00  -427.00
41.00  -90.00  -415.00
159.00  115.00  -459.00
137.00  43.00  -433.00
-5.00  45.00  -428.00
78.00  295.00  -355.00
-8.00  29.00  -452.00
91.00  122.00  -91.00
61.00  95.00  -438.00
-8.00  29.00  -365.00
48.00  34.00  -493.00
68.00  45.00  -470.00
11.00  2.00  -641.00
125.00  73.00  -356.00
102.00  259.00  -269.00
125.00  176.00  -375.00
5.00  44.00  -405.00
21.00  72.00  -365.00
71.00  91.00  -424.00
127.00  32.00  -367.00
68.00  150.00  -402.00
57.00  80.00  -395.00
117.00  82.00  -290.00
-12.00  10.00  -477.00
15.00  32.00  -429.00
41.00  -92.00  -417.00
161.00  113.00  -460.00
139.00  45.00  -432.00
-4.00  44.00  -428.00
80.00  294.00  -355.00
-10.00  29.00  -452.00
91.00  120.00  -92.00
60.00  92.00  -437.00
-10.00  26.00  -366.00
47.00  32.00  -495.00
69.00  41.00  -469.00
11.00  2.00  -641.00
124.00  77.00  -355.00
101.00  256.00  -270.00
124.00  177.00  -376.00
4.00  44.00  -404.00
25.00  71.00  -364.00
69.00  88.00  -423.00
126.00  32.00  -368.00
69.00  146.00  -403.00
55.00  83.00  -393.00
114.00  82.00  -290.00
-11.00  7.00  -477.00
15.00  30.00  -429.00
40.00  -92.00  -416.00
159.00  116.00  -459.00
140.00  43.00  -432.00
-2.00  39.00  -427.00
77.00  296.00  -356.00
-10.00  29.00  -452.00
91.00  120.00  -92.00
61.00  92.00  -434.00
-6.00  24.00  -366.00
49.00  33.00  -494.00
68.00  44.00  -468.00
9.00  0.00  -640.00
124.00  77.00  -355.00
100.00  257.00  -268.00
124.00  177.00  -376.00
4.00  44.00  -404.00
25.00  71.00  -364.00
71.00  89.00  -422.00
126.00  32.00  -368.00
69.00  146.00  -403.00
55.00  83.00  -393.00
118.00  79.00  -290.00
-10.00  8.00  -478.00
14.00  33.00  -426.00
40.00  -92.00  -416.00
159.00  116.00  -459.00
140.00  43.00  -432.00
-2.00  42.00  -427.00
77.00  296.00  -356.00
-10.00  28.00  -450.00
92.00  121.00  -91.00
61.00  92.00  -434.00
-6.00  24.00  -366.00
49.00  33.00  -494.00
68.00  44.00  -468.00
9.00  0.00  -640.00
124.00  77.00  -355.00
100.00  257.00  -268.00
126.00  175.00  -377.00
3.00  44.00  -405.00
24.00  73.00  -366.00
69.00  90.00  -422.00
127.00  34.00  -367.00
67.00  148.00  -402.00
55.00  83.00  -393.00
118.00  79.00  -290.00
-10.00  8.00  -478.00
19.00  30.00  -428.00
37.00  -89.00  -416.00
160.00  114.00  -459.00
140.00  40.00  -431.00
-2.00  42.00  -427.00
76.00  297.00  -354.00
-9.00  30.00  -451.00
91.00  119.00  -92.00
62.00  94.00  -438.00
-7.00  27.00  -366.00
49.00  32.00  -495.00
70.00  43.00  -471.00
12.00  -1.00  -642.00
124.00  76.00  -356.00
99.00  254.00  -270.00
125.00  178.00  -377.00
5.00  44.00  -405.00
22.00  74.00  -364.00
69.00  90.00  -422.00
127.00  33.00  -369.00
68.00  148.00  -403.00
55.00  82.00  -394.00
117.00  80.00  -290.00
-12.00  9.00  -478.00
19.00  30.00  -428.00
42.00  -92.00  -418.00
157.00  116.00  -459.00
140.00  44.00  -432.00
-1.00  42.00  -428.00
75.00  296.00  -356.00
-10.00  32.00  -450.00
92.00  121.00  -91.00
59.00  93.00  -436.00
-6.00  25.00  -367.00
48.00  34.00  -495.00
67.00  45.00  -470.00
13.00  2.00  -641.00
125.00  73.00  -356.00
100.00  257.00  -269.00
126.00  177.00  -377.00
3.00  43.00  -405.00
24.00  74.00  -366.00
66.00  92.00  -423.00
125.00  33.00  -367.00
67.00  146.00  -404.00
53.00  81.00  -395.00
116.00  83.00  -290.00
-11.00  11.00  -475.00
17.00  32.00  -428.00
41.00  -90.00  -415.00
159.00  113.00  -460.00
139.00  45.00  -432.00
-3.00  44.00  -427.00
77.00  296.00  -355.00
-10.00  32.00  -450.00
92.00  121.00  -91.00
63.00  93.00  -438.00
-4.00  22.00  -368.00
48.00  34.00  -496.00
67.00  42.00  -469.00
11.00  -2.00  -643.00
125.00  74.00  -358.00
101.00  257.00  -269.00
126.00  177.00  -377.00
3.00  43.00  -405.00
24.00  74.00  -366.00
66.00  92.00  -422.00
125.00  33.00  -367.00
67.00  146.00  -404.00
53.00  81.00  -395.00
115.00  81.00  -290.00
-12.00  9.00  -478.00
16.00  29.00  -428.00
41.00  -90.00  -415.00
159.00  113.00  -460.00
141.00  43.00  -430.00
-4.00  44.00  -426.00
77.00  296.00  -355.00
-10.00  32.00  -450.00
90.00  121.00  -90.00
61.00  94.00  -436.00
-4.00  22.00  -368.00
48.00  34.00  -496.00
67.00  45.00  -468.00
11.00  -2.00  -643.00
125.00  74.00  -358.00
101.00  256.00  -267.00
125.00  179.00  -377.00
3.00  47.00  -406.00
25.00  73.00  -368.00
70.00  90.00  -423.00
127.00  36.00  -368.00
68.00  146.00  -402.00
53.00  81.00  -395.00
115.00  81.00  -290.00
-12.00  9.00  -478.00
17.00  32.00  -428.00
42.00  -90.00  -416.00
160.00  114.00  -459.00
141.00  43.00  -430.00
-4.00  44.00  -426.00
76.00  295.00  -354.00
-8.00  28.00  -452.00
92.00  119.00  -91.00
61.00  94.00  -436.00
-7.00  24.00  -367.00
48.00  32.00  -497.00
67.00  45.00  -468.00
10.00  1.00  -639.00
125.00  75.00  -357.00
101.00  256.00  -267.00
128.00  177.00  -375.00
3.00  46.00  -404.00
23.00  75.00  -366.00
71.00  90.00  -423.00
127.00  32.00  -367.00
67.00  148.00  -403.00
56.00  82.00  -395.00
116.00  83.00  -290.00
-12.00  9.00  -478.00
17.00  32.00  -428.00
41.00  -92.00  -417.00
161.00  115.00  -459.00
139.00  42.00  -434.00
0.00  42.00  -428.00
76.00  295.00  -356.00
-8.00  30.00  -452.00
91.00  119.00  -92.00
60.00  94.00  -435.00
-4.00  26.00  -369.00
49.00  33.00  -496.00
68.00  46.00  -470.00
12.00  1.00  -642.00
127.00  75.00  -355.00
99.00  257.00  -268.00
126.00  176.00  -377.00
3.00  46.00  -404.00
24.00  71.00  -366.00
71.00  90.00  -423.00
125.00  35.00  -369.00
68.00  148.00  -404.00
56.00  82.00  -394.00
116.00  82.00  -290.00
-9.00  8.00  -478.00
18.00  31.00  -428.00
40.00  -91.00  -416.00
159.00  114.00  -457.00
139.00  44.00  -429.00
-2.00  41.00  -428.00
77.00  293.00  -357.00
-8.00  29.00  -453.00
94.00  120.00  -92.00
61.00  92.00  -436.00
-5.00  24.00  -368.00
48.00  33.00  -494.00
69.00  44.00  -468.00
11.00  3.00  -640.00
124.00  76.00  -355.00
99.00  258.00  -271.00
126.00  176.00  -377.00
4.00  44.00  -405.00
24.00  71.00  -366.00
70.00  88.00  -423.00
125.00  35.00  -369.00
68.00  148.00  -404.00
57.00  80.00  -397.00
116.00  83.00  -290.00
-11.00  8.00  -476.00
16.00  33.00  -428.00
40.00  -91.00  -416.00
159.00  114.00  -457.00
139.00  45.00  -430.00
-1.00  41.00  -427.00
78.00  291.00  -356.00
-8.00  29.00  -453.00
94.00  120.00  -92.00
61.00  93.00  -436.00
-5.00  24.00  -368.00
48.00  33.00  -494.00
69.00  46.00  -470.00
11.00  3.00  -640.00
124.00  76.00  -355.00
101.00  256.00  -270.00
122.00  178.00  -376.00
3.00  45.00  -404.00
22.00  73.00  -367.00
72.00  88.00  -423.00
126.00  33.00  -366.00
70.00  146.00  -404.00
57.00  80.00  -397.00
116.00  83.00  -290.00
-10.00  8.00  -477.00
18.00  31.00  -428.00
41.00  -90.00  -416.00
161.00  114.00  -459.00
139.00  45.00  -430.00
-1.00  42.00  -426.00
78.00  291.00  -356.00
-9.00  31.00  -451.00
92.00  120.00  -94.00
68.00  85.00  -438.00
-8.00  28.00  -368.00
47.00  34.00  -495.00
69.00  46.00  -470.00
12.00  -1.00  -641.00
127.00  73.00  -356.00
101.00  256.00  -270.00
129.00  172.00  -377.00
10.00  35.00  -405.00
26.00  70.00  -366.00
73.00  83.00  -423.00
138.00  23.00  -367.00
74.00  144.00  -401.00
60.00  76.00  -395.00
116.00  82.00  -291.00
-10.00  8.00  -477.00
44.00  7.00  -426.00
50.00  -96.00  -416.00
177.00  102.00  -457.00
148.00  33.00  -432.00
-1.00  42.00  -426.00
87.00  286.00  -355.00
18.00  12.00  -450.00
118.00  98.00  -92.00
68.00  85.00  -438.00
18.00  9.00  -365.00
79.00  13.00  -495.00
82.00  32.00  -469.00
43.00  -25.00  -639.00
154.00  37.00  -359.00
119.00  245.00  -270.00
143.00  114.00  -390.00
10.00  35.00  -405.00
39.00  10.00  -385.00
74.00  7.00  -444.00
138.00  -77.00  -392.00
86.00  81.00  -420.00
64.00  14.00  -407.00
143.00  37.00  -299.00
17.00  -31.00  -482.00
44.00  7.00  -426.00
37.00  -190.00  -443.00
150.00  -20.00  -482.00
137.00  -62.00  -452.00
21.00  -8.00  -438.00
77.00  203.00  -379.00
-20.00  -131.00  -486.00
77.00  -46.00  -132.00
72.00  17.00  -457.00
-22.00  -125.00  -406.00
38.00  -125.00  -532.00
69.00  -68.00  -493.00
3.00  -169.00  -677.00
113.00  -98.00  -389.00
86.00  129.00  -308.00
143.00  114.00  -390.00
2.00  -59.00  -439.00
39.00  10.00  -385.00
74.00  7.00  -444.00
127.00  -77.00  -392.00
86.00  81.00  -420.00
39.00  -95.00  -415.00
102.00  -103.00  -329.00
-16.00  -172.00  -507.00
1.00  -130.00  -459.00
37.00  -190.00  -443.00
150.00  -20.00  -482.00
145.00  -136.00  -451.00
-7.00  -144.00  -460.00